-9.699897057162144565e-01, 2.058079955772123548e-01, 1.294721582467125431e-01
-3.176863938871201110e-01, 9.097613913283170151e-01, 2.672256836222189347e-01
9.657529473876319548e-01, 1.569136807223497354e-01, -2.066381896316999978e-01
1.959285001273606552e-01, -5.586186637871807248e-01, 8.059511221572109863e-01
1.982871580312238133e-02, -7.272089372785834893e-01, -6.861297133718611274e-01
1.388682886465478772e-01, 9.072253333414608267e-01, -3.970614473250384524e-01
-3.710788169509440793e-01, 7.822497699339813204e-01, 5.003856603146427107e-01
-1.999554006256663297e-01, 4.747320333446840568e-01, -8.571157064696988126e-01
-8.279639454452478731e-01, -4.116457992547624678e-01, -3.808194335884743653e-01
-1.734536962603835664e-01, -9.834511961498727528e-01, -5.232169765016251445e-02
-7.172237739315758809e-01, -6.040274582239120171e-01, 3.474778954392754304e-01
-9.470130169304235013e-01, -3.120094458091497436e-01, 7.626566390063492518e-02
-8.109392367756759201e-01, -4.129142496089784897e-01, -4.145833772928413374e-01
-2.226933004712904896e-01, 8.746237414390172216e-01, 4.306286159051889162e-01
5.847905588366838492e-01, 4.722062818741548096e-01, 6.595765532931451292e-01
-9.542460166157851198e-01, 1.498932941164611912e-02, 2.986467139894488643e-01
3.188955578651125888e-01, -6.790377711162023378e-01, 6.612210890250238560e-01
3.195700024701970676e-01, -9.468050288756799659e-01, -3.788470426070632280e-02
5.752194732852858872e-01, 7.014463387670588634e-01, -4.208272702471729243e-01
-2.169521237619980725e-01, 3.427372015719536424e-01, 9.140366440432159401e-01
-3.547709309090157914e-01, -9.166470749765188719e-01, 1.841079208479153573e-01
8.942077744953724761e-01, 2.655620325050655484e-01, -3.603737822370151056e-01
8.358252607328390260e-01, -5.370597876521497893e-01, -1.138548110881113379e-01
-5.784270847755648148e-01, -7.878638242858199137e-01, 2.114064851885203156e-01
-8.247520483570704997e-01, -4.892470133465699478e-01, -2.835867039589087812e-01
-6.459720994309703368e-01, 8.369916922779856161e-02, -7.587585227378476072e-01
2.266717031508401758e-01, 9.586364582950576141e-01, 1.721513282499021746e-01
2.268379110076316485e-01, 6.556011741063306753e-01, -7.202302844508098323e-01
6.242470101514465686e-01, -2.626701040319534552e-01, -7.357445798406010429e-01
2.266205538966478417e-01, 6.038981036111243927e-01, -7.641663464236462255e-01
8.780836089559030944e-01, 4.034170320367290175e-01, -2.573399967856791482e-01
1.033735280151601016e-01, -8.010115739842089688e-01, -5.896561473003049114e-01
-7.059512684078264599e-02, 9.172363890721699775e-01, 3.920379249870866722e-01
5.855647094022735644e-01, 3.999487074614809234e-01, 7.050921943281754922e-01
3.523910149297555527e-01, 9.113382378871415224e-01, 2.127984698289362431e-01
-6.513967463854474227e-01, 5.482737199651427362e-01, -5.244789860366544376e-01
-6.131680588073375876e-02, -9.895812934179986087e-01, -1.302655481458757925e-01
5.121193476280609946e-01, -6.419939335952089439e-03, -8.588903062463401072e-01
9.836262037630263411e-01, -1.078338819819736338e-01, 1.443999486406938593e-01
-9.523558073814006875e-01, -2.162529126585301664e-01, -2.150653247588336925e-01
8.426873124210328969e-01, 5.353218051693853230e-01, -5.752093875109526300e-02
-3.599581979223743788e-01, 4.285139278043075817e-01, 8.287375395299777514e-01
9.593998193368747929e-01, 2.305524456253980337e-01, -1.624732484826966750e-01
-4.826658469107075189e-01, 7.728139257967534537e-01, -4.120586321393835405e-01
5.378200569053690483e-01, -2.098504455767706833e-01, -8.165245721235439014e-01
2.454566569108570795e-01, 6.236673100154075389e-01, -7.421523536284793110e-01
6.704739673068373929e-01, 7.043919574834259789e-01, -2.330163715203232566e-01
-3.784289591651781026e-01, -9.225380656814414770e-01, -7.559788511528889310e-02
1.347389326819741773e-01, -8.722927136523794811e-01, -4.700540838336482730e-01
6.856296027403077087e-01, -6.835127687938998831e-01, -2.504442906952851211e-01
-1.589264711150412956e-01, 6.695040426387486310e-01, -7.256078235998371095e-01
-5.313709915197631362e-02, 3.167205077753706965e-01, -9.470293388529333889e-01
8.762834114207939118e-01, 6.350587514359989916e-02, 4.775922808117622487e-01
-9.974824306887911662e-01, -5.621306461497546647e-02, -4.323068162513160617e-02
5.043075768823922500e-01, 1.212672914629330106e-01, 8.549667314698590204e-01
1.704016270125731924e-01, 8.062602715990609958e-01, 5.664871224948331285e-01
-1.186679258700075734e-01, -6.173437722796643046e-01, 7.776918349817133480e-01
-1.277431774456034078e-02, -8.429248218099856249e-01, -5.378796906212067741e-01
4.949782469733715606e-01, 6.670188585577856433e-01, 5.568504084145371458e-01
7.225493013499357797e-01, -1.454497230756301995e-01, 6.758453115735452155e-01
6.484630841699773329e-02, 5.865385603555832716e-01, 8.073211712204054757e-01
-8.768490974875432498e-01, 3.702917524484606870e-01, -3.066262844309484148e-01
2.420973882205383898e-01, 7.485747252315149147e-01, 6.172720108358679125e-01
-8.589653086074973132e-01, -1.498510875395198949e-01, 4.896154104723931533e-01
4.299074963282535355e-01, 6.777813150747891147e-01, 5.964830538550630612e-01
5.671096266846918921e-01, -4.249256075324750470e-01, -7.055670764602799405e-01
7.881598553602219281e-01, 5.843024477276919093e-01, 1.933770720069511173e-01
8.226245168818406839e-01, -3.332942811954268947e-02, 5.676073056666399719e-01
-6.394005566167517696e-01, -2.492977178561059659e-01, 7.273359444369056348e-01
-1.092020439640485202e-01, -8.036777567171581316e-01, 5.849589532199251929e-01
-2.690966618028727275e-01, -9.285315138045187044e-01, 2.557659369002046046e-01
-5.836326786083961826e-01, -1.576720577054102346e-01, 7.965628780449979240e-01
7.750499114465678741e-01, -2.034264456783287101e-01, -5.982602410033189821e-01
5.502461629715718061e-01, 5.448386724999521036e-01, -6.327558621487061608e-01
5.963819239047727372e-01, -7.879742335419143151e-01, -1.530529585263693537e-01
-9.914004603393236081e-01, 9.944401663247995002e-03, -1.304846202222214868e-01
2.487243912075082775e-01, 1.475223355161590366e-01, 9.572739094649515001e-01
6.443106113732767204e-01, 4.765109632195198008e-01, 5.981648083959801854e-01
5.306200493273813823e-01, 8.309875164911846301e-01, 1.670392489435355565e-01
-6.900842161980237366e-01, -1.041185493188933608e-01, 7.162004623302671291e-01
8.114999970297515075e-02, -9.943475239283000588e-01, 6.846662841023988533e-02
7.299462180275111400e-01, 4.117882200087149003e-01, -5.455354989818604894e-01
-1.647397481463689362e-01, 2.301685683676536198e-01, -9.591054402495357012e-01
1.668531491213853524e-01, -7.961994517694154228e-02, 9.827617671431350121e-01
6.624528638058776453e-01, 1.551416169016386348e-01, 7.328623894978761877e-01
8.360786215899225216e-01, -5.069852518508958239e-01, 2.096151066263569340e-01
-5.089399266877162598e-01, -8.480842599251492420e-01, 1.474219762800438038e-01
-3.512221623764086309e-01, 7.152251239462777965e-01, -6.042317558120156029e-01
2.112418469261312381e-01, -8.523385684177156030e-01, -4.784306082337084765e-01
-4.164449866743473727e-01, 3.213152257494750752e-01, -8.504881532245858189e-01
-4.984676353008143934e-01, -5.734647497237589375e-01, -6.501293697271959271e-01
-3.092351939016154683e-01, -5.890543655901144815e-01, -7.465845894685062545e-01
6.009330223229284451e-01, 5.150659403292831007e-01, 6.112172934354377363e-01
5.487747810947584126e-01, -5.697684189148410211e-02, 8.340263060134692763e-01
-7.004410874704649625e-01, -2.031957417948794808e-01, 6.841737889598089595e-01
2.777344292395786951e-01, 9.551016450117577605e-01, 1.031718687957121905e-01
-2.824136310896075419e-01, -4.182090631405848136e-01, -8.633329140498798848e-01
9.359351517781745733e-02, 9.239324619973527941e-01, -3.709299928344564345e-01
9.213010939189659743e-01, -1.274111829087441472e-01, -3.673835663356637138e-01
-8.534209277063085075e-01, -1.160637696094386356e-01, 5.081357314113531531e-01
-3.420742112273286728e-01, -2.092857260860064572e-01, -9.160702586973632489e-01
-7.985770553350640677e-01, -4.725234142028936213e-01, 3.728220885656032269e-01
2.974209571702273736e-01, 1.447170324361612970e-01, -9.437148694170378604e-01
5.455141044418659185e-02, -9.982290908995506973e-01, -2.372394782506631605e-02
2.482393465581055891e-01, -1.302529189632646578e-01, -9.599017678502076434e-01
9.658529521381821192e-01, -1.631645061006834971e-02, -2.585765810846910595e-01
7.413424088585375271e-01, 5.048700860258014123e-01, 4.421737543818277105e-01
-6.008636633859083115e-02, 9.057531570052628211e-01, 4.195245489303626729e-01
-5.629026551583340421e-01, -8.252304703176792655e-01, 4.620899993463942201e-02
5.002998997338099496e-01, 4.606012658311086638e-01, 7.331756162346917405e-01
9.172613077715642271e-01, 2.584607156881267853e-01, -3.030342418130018145e-01
-3.345015385546777353e-01, 7.996706786846374815e-01, -4.986336594701613056e-01
-4.521537454474156559e-01, 8.007125885364213547e-01, 3.929584469599515795e-01
8.535556490272399044e-01, 4.800275151809612062e-01, -2.025249087961265848e-01
1.204462568862210564e-01, -8.685826214059914896e-02, 9.889127067137994942e-01
7.404054876263201912e-01, -6.561797169287705844e-02, -6.689499201612507662e-01
6.674238315602931682e-01, 7.382280248597418160e-01, 9.779985877833410890e-02
4.514688021392587181e-01, 8.846363250346369611e-01, 1.165954249709446194e-01
-5.238732105909669201e-01, 7.192071579950144455e-01, 4.563966729872676042e-01
4.759335603989069963e-01, 7.028617909307559586e-01, -5.286516328695395339e-01
-7.945891512232611253e-01, -5.794532662927464051e-01, -1.812787713466875728e-01
8.699238359344954041e-01, -1.397651839426179710e-01, 4.729674545151065224e-01
1.707148372324052976e-01, 9.059912091043378357e-01, -3.873452895987936628e-01
-7.997211521071648788e-01, 3.889309648260400303e-03, -6.003590193732820657e-01
-6.860265666920253302e-01, -4.304722569796991527e-01, -5.865672900559287806e-01
-8.328803342837350909e-01, -2.680163670040166743e-02, -5.528037816744684196e-01
-8.263737708377902891e-01, -8.204984571026041618e-02, -5.571123887423918841e-01
2.197577278284799651e-01, -8.587963630468675724e-01, -4.627908251868619871e-01
-6.041523789989472482e-02, 9.038060136565519986e-01, -4.236563332558025419e-01
5.267550307483985783e-01, -3.370314565009428498e-01, 7.803453946235006100e-01
-2.788315904601300632e-01, -1.809805319527624801e-01, 9.431325417010958390e-01
8.777343476329071970e-02, 5.507525800943097183e-01, -8.300406132649867930e-01
9.659423933720731048e-01, -2.585343672857295383e-01, -1.073655525755179939e-02
-2.202197600673195810e-01, -1.599643455061718900e-01, 9.622445975128539608e-01
4.354485980205125006e-01, -1.585288853491430283e-01, -8.861450846175970009e-01
3.985019946642249788e-01, 7.002807126765329959e-02, -9.144901472859979785e-01
-9.621739893806542376e-01, 2.507411002653059384e-01, -1.065369175312515515e-01
-2.014627556691128141e-01, -9.764175807021678866e-01, -7.759810676771036753e-02
-4.094031020423641309e-01, 5.885435108466555709e-01, 6.971410444654525529e-01
-3.111642136805084502e-01, 9.496227861508494961e-01, 3.732822186615532972e-02
-3.605857367466719920e-01, 6.649082203256095891e-01, 6.541215368708557243e-01
-6.139534855247270606e-01, -1.113301980093872878e-01, 7.814516649308704821e-01
1.518634989127397861e-01, -9.305660810082296841e-01, 3.331429821787710854e-01
2.810212483784396698e-01, -4.601447830347555890e-01, 8.421958421921357241e-01
9.729438522409102896e-01, -2.303415348083171776e-01, 1.797325036732216538e-02
2.895665361641925895e-01, 6.918559620806721266e-01, -6.614276595874252207e-01
2.339048816046055967e-01, 9.061440545111897338e-01, 3.524080856557595953e-01
8.235414471006995141e-02, -1.515305482663399095e-01, 9.850158819994606629e-01
-5.598298834705315308e-01, -3.750397382339540897e-01, 7.388746147478461035e-01
-2.160564012797774325e-01, -1.803627341734569400e-01, -9.595774672153919438e-01
-6.276967012928985623e-01, -7.768299162025412707e-01, -5.032029887397766049e-02
3.871691948815326745e-01, -8.813855913073446180e-01, -2.706648369673977927e-01
6.300606808290142302e-01, -7.601074020052487334e-01, -1.589348164818208953e-01
2.961258027122528058e-01, -9.124734809262938784e-01, 2.823148164271162552e-01
5.999759170349734383e-01, -5.580425383224459912e-01, 5.732516239843410411e-01
-6.775022897405827971e-01, -4.581176181755207133e-01, -5.754293139156668735e-01
2.379264036356307788e-01, -9.363120114649741144e-01, 2.582844239195022373e-01
-5.730776840835452024e-01, -2.015180749177880037e-01, -7.943377326344689404e-01
8.232763174914360382e-01, -1.978264428781037129e-02, 5.672960003761021719e-01
4.933899699296409591e-02, 8.334293132652448310e-01, -5.504191522521275637e-01
7.552075778995206434e-01, -1.387674376489039796e-01, 6.406286853798359715e-01
-8.342487782517494788e-01, -5.266725295178936728e-01, -1.632330316960591832e-01
3.389443327338650391e-01, 8.923615088870117118e-01, -2.980061690040838318e-01
-3.726810634838025882e-01, 2.830762930809589406e-01, 8.837288256111853757e-01
5.268845565875689418e-01, -7.465719586370691552e-01, -4.062301990329266199e-01
-4.628784165482974777e-01, 8.799830205563115015e-01, -1.066464018442773998e-01
-2.541739601365976542e-01, -9.623890513104780275e-01, 9.593180862569680722e-02
-6.229728746808402967e-02, 8.706987614707796252e-01, -4.878552190428728785e-01
-8.422486919326414023e-01, -3.486765437524309563e-01, -4.111469430442278861e-01
-1.854117931965582333e-01, 7.428762352277028524e-01, -6.432397423026280370e-01
-9.594281982072743187e-01, -2.099416212924684333e-01, -1.882074603564719562e-01
4.608064045605078651e-01, 8.727046621791484382e-01, 1.613816288392086185e-01
-1.201162119006240203e-01, -5.824541157324155671e-01, -8.039398601294840407e-01
-7.993649674659028537e-02, 4.267449101492374330e-01, 9.008323585160569191e-01
5.706947988028189256e-01, 2.687310671513896132e-01, -7.759452687961214679e-01
-5.044091352482251711e-01, -8.634273702646334536e-01, -8.037447109452460631e-03
-4.087525855944866282e-01, -7.893198198545411381e-01, -4.581435863947206366e-01
2.564293636081176886e-01, -5.389025637254299950e-01, 8.023889382897139155e-01
-6.518334875973657017e-01, 2.889918343184081917e-01, -7.011396609406265190e-01
4.131111120424235117e-01, 1.734924252568704472e-01, 8.940020064214405648e-01
1.807328419768197691e-01, 3.826825810123283822e-01, 9.060296253548910661e-01
9.850886435956315301e-01, -1.705171273911001428e-01, 2.289702000711374072e-02
2.250053923459094662e-01, 2.128234282400805200e-01, -9.508305641950108855e-01
3.164256984858825894e-01, 9.485923096679604871e-01, -6.885301483989594851e-03
9.340203122225853027e-01, -1.792587158575926209e-01, 3.089860338991252120e-01
4.696448731164009072e-01, -3.327417967141097499e-01, 8.177509338881525647e-01
-6.738661703896030586e-01, -5.723821160694764210e-01, -4.672077670675853223e-01
-2.102290541032721949e-01, 9.632944228681707965e-01, -1.669359148952706540e-01
-6.985493025517131027e-01, 5.598144807585394567e-01, 4.456866825894198469e-01
7.197818680201271135e-01, 5.803555368720120233e-01, 3.809219254538323551e-01
9.824101339601545302e-01, -1.828059537273279689e-01, -3.810921114682384869e-02
-1.578594715050862241e-01, 8.131048188595687565e-01, 5.603043287388407290e-01
-1.409557111729793644e-01, 9.525763488229844755e-01, 2.696846068109773342e-01
4.078366019402734910e-01, 8.282260117308412051e-01, 3.843318612998868899e-01
3.281216047026953020e-01, -2.073818910634076806e-01, 9.215904533936389864e-01
-2.612043758494124179e-01, 1.317451644577580239e-01, 9.562507441456540302e-01
-9.846489211435495159e-01, -1.287263867324992261e-01, -1.178813787230149207e-01
-2.674827419136933115e-01, 7.239449952459711124e-01, 6.358904203057658133e-01
6.881450821170572718e-01, -1.902944596124613863e-01, 7.001745243858202850e-01
-9.490330929740784516e-01, -2.808406872840663038e-01, 1.430548734083098295e-01
3.076328867754957175e-01, 2.690547029669366763e-01, 9.126727638017628763e-01
7.577121675896958397e-01, 6.485747541150180817e-01, -7.227073689376996291e-02
-6.945848947597298428e-01, 7.028484806904995441e-01, 1.534791098575683799e-01
-4.460912620192921119e-01, 1.392505907933952458e-02, -8.948791419402242209e-01
6.658464948791236182e-01, -7.221549068724958387e-01, -1.874586240671844706e-01
-8.530843221120605335e-01, -2.953475035306430962e-01, 4.301360151450037694e-01
5.754200881849919069e-01, 3.680759649055891369e-01, -7.303504680439356633e-01
-8.804613047309878260e-02, -8.439008923144815100e-01, -5.292250587978009069e-01
-3.328506301724254435e-01, -8.496639660997495902e-01, 4.090007368030809665e-01
4.939029490120602772e-01, -8.209761689081293556e-02, 8.656326347002171184e-01
-3.311931573869212331e-01, -7.663617748412724362e-01, 5.504550141130671870e-01
-6.787846875908670752e-01, -7.182344528662718552e-01, 1.529399182949177372e-01
7.394834591839860582e-01, 4.248504178390372643e-01, 5.221746221861817139e-01
5.335844081086361657e-01, 7.664981057601525372e-01, 3.574469657018428115e-01
4.239421063405181545e-01, 6.667217414866235536e-01, -6.129887518548841063e-01
5.278062231182685249e-01, -3.390190222670643183e-01, -7.787725556147392370e-01
-3.968647097438137566e-02, -2.120085270419752588e-01, 9.764616574567029916e-01
-6.716414435453839094e-01, -4.778393321119149828e-01, 5.661866688638226286e-01
1.837433816794563704e-02, 8.320349939661468852e-01, -5.544187519489615079e-01
-2.823773994768188911e-01, 3.785894031915178481e-01, -8.814380681907261206e-01
2.760914116435611576e-01, 6.495697507999348419e-01, -7.084014901610357073e-01
5.423042223183665023e-01, 3.340445275600409936e-01, -7.709217755796374805e-01
-7.968392480440970038e-01, -5.766741387437883670e-01, 1.802613393954121956e-01
6.324710258739757451e-01, -5.473466300302047560e-02, -7.726477322142779602e-01
-4.719007171845442938e-01, -8.807708187080802720e-01, -3.940149785237422736e-02
-4.782092455112752494e-01, 8.574908284838026473e-01, 1.898035736589238076e-01
8.493628229335696833e-01, -3.244063902383991643e-02, 5.268115412156822996e-01
-1.112406933352281663e-01, -5.195856678114322280e-01, -8.471459389923590155e-01
1.462614791954368609e-01, -6.314777073786249639e-01, -7.614745463818199944e-01
-6.260044019425496931e-01, -4.944105449841172395e-01, -6.030561348307956759e-01
6.034254290812113980e-02, 7.539452351525639529e-01, -6.541600415082892139e-01
3.565671552413528511e-01, 5.612757013154119345e-01, -7.468798102211503531e-01
-7.529433277863613050e-01, 6.342081511576121988e-01, 1.756598023090181759e-01
6.458353054198938681e-01, 7.176427509469223143e-01, 2.605487291976804620e-01
-8.918690849603089221e-02, 1.954028546110561093e-01, 9.766593161193780626e-01
-4.736515044804502916e-01, 5.418851306672191059e-01, 6.942728263911650544e-01
-8.095348315823536200e-01, 2.900386844035868772e-01, -5.104222937963888151e-01
4.527389775180149512e-01, 8.884581504710674649e-01, 7.529630201724721306e-02
-4.718664496035056000e-01, 2.881256367600104618e-01, 8.332620663274075135e-01
-3.386634977091886323e-01, -1.717245999831948366e-02, 9.407508394559020992e-01
1.108406793285576647e-01, -6.526996311511252813e-01, 7.494648325980137749e-01
8.165090173390663342e-01, 4.322835384631749656e-01, 3.826799798496766103e-01
1.964079765142891787e-01, 6.302429463797232234e-01, -7.511442839429502971e-01
-8.323154559391832130e-01, 2.425947818872382367e-01, 4.983961813716401568e-01
-6.048254332929838828e-01, 7.672623713616545660e-02, 7.926533162593083492e-01
-6.748756654047938230e-01, 5.485312027641984223e-01, 4.936155952140274805e-01
8.654448778832952716e-01, 2.909308222126748000e-01, 4.078779474698593921e-01
-1.245130404598933094e-01, 6.917963841227534605e-01, -7.112765043709209367e-01
-7.002178974226909158e-01, 6.378400039693262746e-01, 3.207101892134947563e-01
-2.136521476795423535e-01, 9.174446280506827200e-01, 3.356309196913527249e-01
7.194260367909301179e-02, -2.324177579240046254e-01, -9.699516728051206238e-01
-3.250898374819890524e-01, 4.615878753650237698e-01, -8.253806581704814516e-01
-1.942303668873460731e-01, 7.174031527092611382e-01, -6.690345888379908290e-01
2.188850561951614093e-01, 4.439381931104195989e-01, 8.689120858132293179e-01
3.649334758213945151e-01, 8.812036838728762866e-01, -3.005056168423271279e-01
-1.832302803164195526e-01, 7.106927603546320249e-01, 6.792219554421662364e-01
-6.155860078119819168e-01, 7.613848626363121097e-01, -2.033395139523813955e-01
-1.718053871725789827e-01, 8.414895511722060295e-01, -5.122287030287150378e-01
8.798383613029041317e-02, 6.285740660567311622e-01, 7.727570692402019326e-01
9.938286580364456835e-02, 8.439502730877798120e-01, 5.271346910797246599e-01
8.968750906019836711e-01, -4.248370736382539592e-01, -1.229981004738213007e-01
-3.739097674281927630e-01, 9.246953360025782498e-01, 7.162416768712871751e-02
-6.258453690184951901e-01, 6.650593660120418527e-01, -4.074476822338846116e-01
-3.989044473068157903e-01, -8.368221021655170011e-01, 3.749720139505464123e-01
6.322032317899636267e-01, -9.295683730766703123e-02, -7.692061492942459111e-01
-8.323105210395621567e-01, 8.047023748408312083e-02, 5.484375419736581270e-01
8.986111841852948423e-01, -1.169427436153597510e-01, 4.228738989022782779e-01
-1.422894383174695340e-02, 9.559510705369221872e-01, -2.931809814717619145e-01
-3.977875333107798450e-02, 1.192871150309673944e-01, 9.920626164567506455e-01
-7.379839486518495750e-01, 6.014627664947211350e-02, -6.721325144176772959e-01
-4.864651476048840184e-01, -8.125779688106393728e-01, 3.210431509459965582e-01
7.084025145621107855e-01, -5.818597623831853749e-01, 3.995060628844843698e-01
3.724014705805908654e-01, 4.798464693272786463e-01, 7.943956889255870957e-01
-3.189062989152479655e-01, 6.475197717668623731e-01, -6.921104808360938332e-01
7.219119107856226958e-02, -2.173265530426176373e-01, 9.734257040335809741e-01
-1.268765292377121157e-01, 3.343774863982360568e-01, -9.338597554871873596e-01
-8.184002223079971383e-01, 9.281503020307482754e-02, -5.671035587038958381e-01
-5.836836017799774678e-01, -7.149306276322042741e-02, 8.088276670526837187e-01
1.883606638362645136e-01, 6.116882173770138431e-01, -7.683474377137551325e-01
-2.351823650176258773e-01, -4.124248517510627488e-01, -8.801107866870113705e-01
1.111675946723743730e-01, -8.407340733211355888e-01, 5.299131852026424117e-01
7.583841097754474569e-01, 4.683564390812168798e-01, 4.533164325405207862e-01
-8.640628919710497957e-01, 3.160682120407983797e-01, 3.917859161020961767e-01
-8.734523883643406927e-01, -3.653115275688704755e-01, -3.219136733441552711e-01
9.202832390339094060e-01, 1.264245316221422610e-01, 3.702642269479705650e-01
-7.002091823601590548e-01, 6.894667094426540910e-01, -1.853179902460526662e-01
-9.502042075178915304e-02, -2.328700150891084286e-01, 9.678546769595895993e-01
-4.257430514192104831e-01, -4.034740790047970649e-02, 9.039441027209434987e-01
6.624962764343771404e-01, -4.362562507131679257e-01, 6.089163878762625659e-01
7.989611712086438500e-01, -1.125955412051062449e-01, -5.907480774421879355e-01
-3.329263445159411638e-01, -9.175101501777317425e-01, 2.175664805251234235e-01
9.415427620425159683e-01, -3.361092370916945460e-01, -2.297407205937060382e-02
8.556270084552600533e-03, -9.883243876625875668e-01, -1.521239461544812988e-01
-4.757850139280230262e-01, 8.600101996228026735e-01, 1.844209236129618068e-01
6.093589677385185220e-03, 9.922001763258705420e-01, 1.245057358668874570e-01
3.990189775475672662e-01, -5.448921736415299200e-02, 9.153222278235878528e-01
8.841644024141916969e-01, 4.622768881701494470e-01, -6.747879790925859211e-02
-3.189765180695153246e-01, -1.797492976967604017e-01, -9.305612128698302898e-01
-1.520251650721091696e-01, 9.459610331368486502e-01, -2.864368568663326342e-01
3.934485967179363608e-01, 8.807076220568668123e-01, -2.637276742998841961e-01
-9.268419020370668449e-01, 5.637654117867339082e-02, 3.711950622422681700e-01
-5.926202538171341239e-01, 3.904425008824235488e-01, 7.045252928535598036e-01
-8.949219084054619300e-01, -4.197080941658859476e-01, 1.515252241297335434e-01
7.837513213277169655e-01, 4.436903407833492907e-01, 4.345949238228782874e-01
-6.110640061229397624e-01, 3.711209747985483483e-03, 7.915724902642780059e-01
-9.199878223680375555e-01, -3.812093836220560861e-01, 9.111428281563888065e-02
9.318183590049781140e-01, 1.730624712488794958e-01, 3.190045875320612345e-01
7.760143033201164497e-01, 1.069424486569154759e-01, 6.215827488901678466e-01
-2.994290621927424012e-01, 9.541093143308114755e-01, 4.201549900145671278e-03
8.813702087362905724e-01, 2.166468112649778399e-01, 4.198222413365740868e-01
5.603685477441724405e-01, 4.926021562524602326e-01, 6.658304636726333214e-01
3.541433997899172126e-01, -8.697970298329072980e-01, 3.435630644861166205e-01
9.824777041785895740e-03, 9.994412373469421240e-01, 3.194819003468793439e-02
-4.595420385965553467e-01, 1.412668750443022980e-01, 8.768493512444082150e-01
-1.741703493635065325e-01, 6.707967470463184201e-01, 7.208997250343986973e-01
2.455680453615064276e-02, -1.274977688529677911e-01, 9.915348114355282405e-01
3.403193174173493318e-01, -2.427748766354589915e-01, -9.084289303336982035e-01
-8.052662367661785892e-01, 3.968929784148161888e-01, -4.404795700250499491e-01
8.543241851241281104e-01, -1.203125771432983909e-01, -5.056234473332229529e-01
-3.384720192977668796e-01, 2.660428393885328480e-01, 9.025840125786515067e-01
-9.761061396131508472e-01, -1.564697411783558534e-01, -1.507780630764645469e-01
-3.806804019435434117e-01, -2.505351795301218321e-01, 8.901205285768393205e-01
-8.516855906192333237e-01, -1.084490253386161396e-01, -5.127089463181540019e-01
-9.910321919980052963e-01, 1.294956776659546283e-01, 3.295548345061943829e-02
-2.903872059744641021e-01, -9.071489175329766619e-01, 3.045588810478083164e-01
-9.675580819732104709e-02, 8.570516148949436364e-01, 5.060640700405953929e-01
-4.457531318585747360e-01, 6.369698482263068673e-01, 6.289463871339334711e-01
3.448414272002431336e-02, -7.661538936239115083e-01, -6.417312951584837055e-01
2.144299119563514711e-01, -3.653730896105216730e-01, 9.058268699077395292e-01
5.957784395504172048e-01, 7.627834505189746706e-01, 2.514149132037256096e-01
-5.752232483739256885e-01, 6.510004229801420461e-01, -4.952945222893396782e-01
1.365618395196789014e-01, 4.827888406453295089e-01, -8.650235831093507910e-01
5.055193995920561623e-01, -5.413100164112329971e-01, 6.718880879796557126e-01
-8.837701999275350273e-01, 3.608732531523770604e-01, -2.978602505861851490e-01
-6.826678738520824963e-01, 3.015283190359022147e-01, -6.656164412254707008e-01
4.042715673236414453e-01, 5.072599974966013336e-01, 7.610859312807158883e-01
7.788472071584110479e-01, 4.642256765959087983e-01, -4.217719159576817645e-01
1.355515956431392888e-01, -6.111513578774920852e-01, 7.798203528269165297e-01
-5.768064991265949848e-01, -6.599152420718458201e-01, 4.814624968225236779e-01
-5.783666250783940921e-01, -8.157624006342433232e-01, -4.873674885000329679e-03
6.167105744291804248e-01, 8.648613466327503829e-02, 7.824245752136343990e-01
1.483316901863105663e-01, 9.811477243798143455e-01, 1.238824145340414185e-01
5.498940632025027808e-01, 6.591326318977007714e-01, -5.129919032716325766e-01
-7.862946094813252351e-01, 3.530288486785791990e-01, -5.070615535625699888e-01
-3.991905889138348817e-02, 7.328499595156648949e-01, 6.792182311857616339e-01
-9.773218082948728069e-01, -7.174537354399022904e-02, 1.992352489050899789e-01
8.839661452087296256e-01, 4.399755354881904612e-01, 1.581941285152487775e-01
5.721647306668758981e-01, 4.651605447203117638e-01, -6.754651646209477445e-01
6.117883134394709321e-01, -1.503835871697196402e-01, -7.765950271852471998e-01
-5.680777054750525412e-01, 7.057827313550324444e-01, 4.232711384718184089e-01
-7.981363635831976167e-01, 5.863080238112332587e-01, -1.386407095363988706e-01
4.163747238033365106e-01, 2.875269513826819723e-01, -8.625313568829112709e-01
-3.664402763562118470e-01, 6.573272959086492451e-01, -6.585152617194275360e-01
-4.339392916037300707e-01, -2.774273708617404632e-01, 8.571643629428344902e-01
4.226210001677472294e-01, -8.928070650488686422e-01, -1.558429812857747843e-01
8.782091296744449771e-01, 5.858922054831301046e-02, 4.746746546762265484e-01
6.248969968090473115e-01, 6.091898179697878835e-01, 4.882535294915645863e-01
8.418037545226374485e-01, 1.269419364705512976e-01, -5.246448166490331744e-01
-7.394431002715643464e-01, 1.864417428810779820e-01, -6.468874538683240250e-01
5.039514629660309941e-01, -8.602706927948980953e-01, -7.724802970033053939e-02
-7.364450417912021818e-01, -6.056463760417080122e-01, 3.013986854793838654e-01
-3.984541403788584013e-01, -1.764423648975469994e-01, -9.000568814715578236e-01
-2.694040293050362633e-01, 5.888960900703757995e-01, 7.619861311690884209e-01
-1.449164924781205510e-01, 9.753596255443789387e-01, 1.663514684809476174e-01
1.622740914740411142e-02, 9.533917887588962969e-01, -3.012984704897703203e-01
-9.727094090468524357e-02, 7.938760329542332572e-01, 6.002492885096711861e-01
5.925961387776883527e-01, -1.865644440796813408e-01, -7.835965317119609752e-01
5.069676995999217173e-01, 6.163733185357305189e-01, -6.025509802162919426e-01
-1.417067897017928839e-02, 3.392060267199952794e-01, -9.406053706493270328e-01
-3.161658742190681104e-01, 8.084937751320474542e-01, 4.963637331151650178e-01
-8.019191088694664904e-01, -5.944226258699802923e-01, 5.989561489656970023e-02
-8.449394479285878834e-01, 5.100019227054416460e-01, 1.611687568075332588e-01
4.142077642035981722e-01, -8.969079430275411768e-01, -1.548808245315134169e-01
9.764526414806316001e-01, -2.056810981591132570e-01, 6.508090968600732662e-02
5.639724579334088120e-03, -5.234575985954196264e-01, 8.520330603793410118e-01
6.700837485026298057e-02, -8.996044167454262386e-01, 4.315342061436708287e-01
9.208681219335675960e-01, 2.978441492180384786e-01, 2.515765584928906229e-01
7.264687798716049638e-01, -3.803285429405583451e-01, -5.723576777650259961e-01
-7.251648352731727698e-01, 6.874513865568053772e-01, -3.932623557318880997e-02
-5.324503512502025693e-01, 4.343891752063360201e-01, -7.265002876235460150e-01
2.703710190182877504e-01, 6.737192283752571065e-01, 6.877513456129772385e-01
5.765179819661642169e-01, -1.786227079886199276e-01, 7.973211051141652073e-01
-9.365693182629172275e-01, 2.612748119839792410e-02, -3.495071770575844949e-01
3.893888030508826925e-01, 8.049871924108125132e-01, -4.476292887123879960e-01
-3.171376048501134970e-01, -3.271266144860608405e-01, 8.901752174065628020e-01
-8.459878850389490265e-03, -7.420783120859291149e-01, -6.702598072251797490e-01
-1.912975428366868180e-01, -7.596946726438656705e-02, 9.785877018173748665e-01
-8.684415490240885438e-01, 1.136218573313832192e-01, 4.825964664864512699e-01
-9.508120333690157633e-01, -1.426761182585101484e-01, -2.749545462060254408e-01
9.214268190098254818e-01, 3.701595574067433891e-01, 1.181292481558996049e-01
4.085744583001253705e-02, 1.189532077225585391e-03, -9.991642778510874123e-01
6.239192841262689582e-01, -1.890047827013202064e-01, 7.582888097627386026e-01
5.014012583392347677e-01, -7.931216700384617901e-01, 3.457669658183576966e-01
3.761763401026270350e-03, 8.913932800341454188e-01, -4.532150366504651973e-01
-7.298324697773804770e-01, -3.043808561030085236e-01, -6.121248732870188114e-01
-3.690809903127724168e-01, -8.841064064824508684e-01, 2.865921921588766574e-01
-9.749452455234357551e-01, -2.080357688580909692e-01, 7.875840975331169225e-02
-6.404957642537902895e-01, -5.238734402853354455e-01, -5.615352121964928278e-01
6.589880060554126340e-01, 6.042539478882925641e-01, 4.478972810104166480e-01
-7.794653563785544081e-01, 6.162840421287053561e-01, 1.123732068740464080e-01
-3.946840245382507995e-01, -7.404849641312737374e-01, 5.439729208975346841e-01
5.035337923743684607e-01, -6.015247758638827547e-01, 6.201787354940444530e-01
5.244681403007529497e-01, -2.293168420976634536e-01, 8.199676553010033508e-01
8.987369577343922167e-01, 2.382649869611491167e-01, -3.681055239883435637e-01
6.538390510810511147e-01, -1.097217717045595731e-01, -7.486358447839930319e-01
-2.101902804576726846e-01, 9.764928013254000616e-01, 4.776876553562513228e-02
9.062693635637015799e-01, 3.720088512867270047e-01, 2.007118711740119854e-01
2.963444387709223693e-01, 6.640319948448274445e-01, 6.864703077569677125e-01
-6.082103630698745128e-03, 5.940304773719836673e-01, -8.044195422592856914e-01
2.851022575547201843e-01, 8.735000679658557754e-01, 3.946065559526947819e-01
-2.771954989970489835e-01, -6.108287685663383870e-01, 7.416541450214565456e-01
-9.157584860563763307e-01, 9.569570275515783264e-02, -3.901650005958121059e-01
-4.450942277015330628e-01, 5.139293012466331634e-01, 7.333265314898427256e-01
-8.272492856171534958e-01, 3.840051359127427122e-01, 4.101203177587587900e-01
8.623052537170976528e-01, 4.292865829217484275e-01, -2.685938925874165606e-01
-4.929706521396246544e-01, -8.124560366716204740e-01, -3.112798172141515440e-01
7.623604160240337047e-01, -2.591396610090707653e-01, 5.930035684308874178e-01
-1.236461571160607370e-01, 7.507380876831119820e-02, -9.894824662759059697e-01
-9.968559090325814775e-01, 1.516611653624887895e-02, -7.777072415783731207e-02
3.439943576474155940e-01, 8.764851368588191249e-01, -3.368110550031257477e-01
1.862733166646262095e-01, -5.890152817204420410e-01, 7.863607628808473304e-01
-4.882292069398524448e-01, 5.565800490671608536e-01, 6.721985498878136900e-01
4.401909014645893209e-02, -9.081765409457926985e-01, 4.162663692618142064e-01
2.600778816322153464e-01, -9.155587510649723093e-01, -3.067762520698879558e-01
-1.434438653123180571e-02, 4.797492488614352735e-01, 8.772883772123800661e-01
-9.650543715893369345e-01, -1.157221928448534942e-01, -2.351136617882686741e-01
3.349534301630293642e-01, -1.438900269241200347e-01, 9.311830431090316607e-01
-1.525712361824087260e-01, 8.324369063675514380e-02, -9.847804353554876489e-01
7.348635025807624954e-01, 7.071845154002641409e-02, 6.745180006393561856e-01
-5.865646274108052838e-01, -3.165989015362031811e-01, -7.454576268417224538e-01
-5.920278193392004840e-02, 4.046679572325563301e-01, -9.125452728497992494e-01
6.315571066833537417e-01, -8.406251146389764894e-02, -7.707587918176042052e-01
1.540105453716578143e-01, -7.475367615113729380e-01, -6.461188297081374987e-01
-1.736251646418301986e-02, -5.572877241638886092e-01, 8.301379015068910405e-01
8.547370297904746117e-01, 4.951072394195420445e-01, -1.558635023965438404e-01
2.525033636873049159e-01, 6.630547629450822544e-01, -7.046988240819176408e-01
2.077391485237546076e-01, 1.012029687259520666e-01, -9.729349440181904729e-01
1.433444933197892956e-01, 9.504983974486262976e-01, 2.756903202553293575e-01
-5.019145447383033254e-01, -6.172926642962196508e-01, 6.058312936669881799e-01
-3.237028513782589934e-01, -1.141091399256944083e-01, -9.392526647260592831e-01
9.693612720978617148e-01, 1.619608995733438361e-01, 1.846818647464025520e-01
-9.507033688498743584e-02, 7.602442405153069238e-01, -6.426432336902639930e-01
3.355599881874615775e-01, 5.194343400548302458e-01, 7.858673302151156781e-01
-3.160857491861854829e-01, -9.243834619611670522e-01, 2.135533057906041920e-01
-9.720637982415673006e-01, 1.896640514944518408e-01, 1.382733514415833698e-01
-7.624421147459728987e-01, -6.269514237864063366e-01, 1.600435374324338522e-01
-5.436876909120835766e-02, -1.088575730542340747e-01, -9.925694261542861163e-01
-9.327213709189365876e-01, -2.283266980330342644e-01, -2.791017076200557612e-01
-4.548939644171727803e-01, -1.036045719864362724e-01, 8.844984871667871396e-01
-5.760024701737697095e-01, -7.713553577804560524e-01, 2.706142390509048146e-01
8.372512156348298484e-01, -3.938106949304095439e-01, -3.793725589396619857e-01
-6.400513634216082881e-01, 7.680549316568197060e-01, 2.063671824148016060e-02
2.016634231541319239e-02, -2.323873660846509093e-01, -9.724142279511627240e-01
-4.518283599115360816e-01, 7.682436396367620102e-01, -4.534896286987306069e-01
-9.232840198685117183e-01, 3.618737926689555295e-01, -1.288176107324917330e-01
4.322264192699830088e-01, -2.600094774639953310e-01, 8.634670776086076360e-01
7.242638993833560024e-01, -5.473682960944488141e-01, 4.193205843751004469e-01
-2.211627295871265442e-01, -7.833196197717541276e-01, 5.809452816937289432e-01
-3.966530864160331404e-01, -8.157670978511309956e-01, 4.209398663706949151e-01
3.660151848379554762e-01, 7.962032190707845070e-01, -4.817606443134988536e-01
2.510979239599143709e-01, -7.795026736050099103e-01, 5.738688129055825593e-01
7.156104829380990351e-01, 5.386741131143195638e-01, 4.446704808839932466e-01
-5.271169131925226292e-01, -5.541300973726946966e-01, -6.442729196637977385e-01
-3.711499833664150261e-01, -7.518141660006666394e-01, -5.449983024265598885e-01
-1.583118550421580006e-01, -6.523378955186194261e-01, 7.412102445483667035e-01
-4.939312577402361626e-01, 6.411339496863098786e-01, 5.873492752926325888e-01
9.087041144787174618e-01, 3.960867377262147215e-01, -1.318033706961037332e-01
3.425312778929823776e-01, 2.870353854080224254e-01, -8.945853850743754609e-01
5.214372368384607714e-01, 1.212370030922358677e-01, 8.446329363217397468e-01
4.511815980258458980e-01, 7.104605608975880227e-01, -5.400749549941457062e-01
9.330483794389395069e-02, 9.146229267927793449e-01, 3.933943428689256616e-01
3.401334553795916094e-01, -2.339316183326746179e-01, 9.108156951193777662e-01
-6.808138104801388923e-01, -1.578225232442099502e-01, 7.152514289509278589e-01
-4.653257656235957329e-01, -2.931127558611269085e-02, 8.846540459243541488e-01
-2.644086878746023106e-01, 5.107976085328103273e-03, 9.643971974019538429e-01
-5.849984334350878390e-01, 6.932448152560521937e-01, -4.209375951362567814e-01
-1.378367155409316036e-01, 9.269073265589475863e-01, -3.490613811641622988e-01
-5.321247066033807371e-01, 6.578420189532420137e-01, 5.329982877287584575e-01
1.526422851970764549e-01, -5.238594853819690256e-01, 8.380164511184449161e-01
8.033390393701030918e-01, -5.836980658377175502e-01, -1.180802937040187073e-01
-8.461479944560865718e-01, -1.915065127331339323e-01, 4.973518141705492446e-01
-9.247739708013601456e-01, 4.275651563447589038e-02, 3.781071055918995838e-01
-1.755346564653524066e-01, 3.450238729005041249e-01, -9.220336824153050337e-01
9.809436485045748277e-01, -2.178803353072107651e-02, -1.930669315377374906e-01
-3.252046954559647540e-01, -4.401293897519232834e-01, -8.369755231367240755e-01
-4.798242249377217550e-01, 6.334886267572813479e-01, -6.070097799311707787e-01
-7.678596419018064445e-01, -1.449377483314437942e-01, -6.240069065699838102e-01
2.049368535155466492e-02, -8.966195814271213926e-01, 4.423271810121610637e-01
-6.182076393320330432e-01, 6.786681121671032102e-01, 3.965210059997517078e-01
7.084118815470541453e-01, -3.911585719061146937e-01, -5.874926192790265178e-01
-7.756784376478238485e-01, 5.128149771833663273e-01, -3.678909628472200044e-01
-4.130560875236318208e-01, -7.565220720393661669e-01, 5.070098845949002619e-01
-1.121389128316664513e-01, 9.802553907707757253e-01, -1.628626203085462576e-01
-8.451463707172039985e-01, -1.339938935880642390e-01, -5.174681135535299514e-01
-9.889405237979195795e-02, 4.433035382265200219e-01, 8.908995113926998499e-01
6.650838229380793276e-01, -1.135836277138983427e-02, -7.466823260672661444e-01
-2.809960177750673305e-01, -1.751587837609495379e-01, 9.435892318514127464e-01
-6.815202702711763427e-01, 5.378227339466377099e-01, -4.962628618581757522e-01
3.983309528209477146e-01, 9.079449577755881462e-01, 1.302628330516474309e-01
-5.640092117339134958e-01, 4.956459183156210480e-01, 6.604761409289168217e-01
